# .PCD v0.7 - Point Cloud Data file format
VERSION 0.7
FIELDS x y z intensity
SIZE 4 4 4 4
TYPE F F F F
COUNT 1 1 1 1
WIDTH 1666
HEIGHT 1
VIEWPOINT 0 0 0 1 0 0 0
POINTS 1666
DATA ascii
11.3203 7.7100 1.2941 100.0
11.3203 -7.6441 1.3600 100.0
11.3203 7.9559 1.3600 100.0
11.3203 -7.9800 1.4500 100.0
11.3203 7.6200 1.4500 100.0
11.3203 -7.9559 1.5400 100.0
11.3203 -7.6441 1.5400 100.0
11.3203 7.6441 1.5400 100.0
11.3203 7.9559 1.5400 100.0
11.3203 -7.8900 1.6058 100.0
11.3203 -7.7100 1.6058 100.0
11.3203 7.7100 1.6058 100.0
11.3203 7.8900 1.6058 100.0
11.3244 -7.3500 2.3300 100.0
11.3244 7.3500 2.3300 100.0
11.3244 -7.4600 2.3594 100.0
11.3244 7.2400 2.3594 100.0
11.3244 -7.1595 2.4400 100.0
11.3244 7.5405 2.4400 100.0
11.3244 -7.5700 2.5500 100.0
11.3244 7.1300 2.5500 100.0
11.3244 -7.5405 2.6600 100.0
11.3244 -7.1595 2.6600 100.0
11.3244 7.1595 2.6600 100.0
11.3244 7.5405 2.6600 100.0
11.3244 -7.4600 2.7405 100.0
11.3244 -7.2400 2.7405 100.0
11.3244 7.2400 2.7405 100.0
11.3244 7.4600 2.7405 100.0
11.3901 -7.5500 3.9300 100.0
11.3901 7.5500 3.9300 100.0
11.3901 -7.4900 3.9460 100.0
11.3901 7.6539 3.9900 100.0
11.3901 -7.6700 4.0500 100.0
11.3901 7.4300 4.0500 100.0
11.3901 -7.6539 4.1100 100.0
11.3901 -7.4461 4.1100 100.0
11.3901 7.6539 4.1100 100.0
11.3901 7.4900 4.1539 100.0
11.3901 7.6100 4.1539 100.0
11.3901 -7.5500 4.1700 100.0
11.4041 -8.3500 1.8100 100.0
11.4041 8.3500 1.8100 100.0
11.4041 8.4200 1.8287 100.0
11.4041 -8.2288 1.8800 100.0
11.4041 -8.4900 1.9500 100.0
11.4041 8.2100 1.9500 100.0
11.4041 -8.2288 2.0200 100.0
11.4041 8.2288 2.0200 100.0
11.4041 8.4712 2.0200 100.0
11.4041 -8.4200 2.0712 100.0
11.4041 -8.2800 2.0712 100.0
11.4041 8.3500 2.0900 100.0
11.4872 -8.0000 3.0900 100.0
11.4872 8.0000 3.0900 100.0
11.4872 -7.9200 3.1114 100.0
11.4872 7.9200 3.1114 100.0
11.4872 -7.8614 3.1700 100.0
11.4872 8.1386 3.1700 100.0
11.4872 -8.1600 3.2500 100.0
11.4872 7.8400 3.2500 100.0
11.4872 -6.8250 3.0500 100.0
11.4872 -6.6750 3.0000 100.0
11.4872 -6.5250 3.0000 100.0
11.4872 -6.3750 3.0000 100.0
11.4872 -6.2250 3.0000 100.0
11.4872 -6.0750 3.0500 100.0
11.4872 6.0750 3.0500 100.0
11.4872 6.2250 3.0000 100.0
11.4872 6.3750 3.0000 100.0
11.4872 6.5250 3.0000 100.0
11.4872 6.6750 3.0000 100.0
11.4872 6.8250 3.0500 100.0
11.4872 -8.1386 3.3300 100.0
11.4872 -7.8614 3.3300 100.0
11.4872 8.1386 3.3300 100.0
11.4872 7.9200 3.3885 100.0
11.4872 8.0800 3.3885 100.0
11.4872 -8.0000 3.4100 100.0
11.5000 -7.8000 1.2700 100.0
11.5000 7.8000 1.2700 100.0
11.5000 -7.8900 1.2941 100.0
11.5000 7.7100 1.2941 100.0
11.5000 -7.6441 1.3600 100.0
11.5000 7.9559 1.3600 100.0
11.5000 -7.9800 1.4500 100.0
11.5000 7.6200 1.4500 100.0
11.5000 -7.9559 1.5400 100.0
11.5000 -7.6441 1.5400 100.0
11.5000 7.6441 1.5400 100.0
11.5000 7.9559 1.5400 100.0
11.5000 -7.8900 1.6058 100.0
11.5000 -7.7100 1.6058 100.0
11.5000 7.7100 1.6058 100.0
11.5000 7.8900 1.6058 100.0
11.5041 -7.3500 2.3300 100.0
11.5041 7.3500 2.3300 100.0
11.5041 -7.4600 2.3594 100.0
11.5041 7.2400 2.3594 100.0
11.5041 -7.1595 2.4400 100.0
11.5041 7.5405 2.4400 100.0
11.5041 -7.5700 2.5500 100.0
11.5041 7.1300 2.5500 100.0
11.5041 -7.5405 2.6600 100.0
11.5041 -7.1595 2.6600 100.0
11.5041 7.1595 2.6600 100.0
11.5041 7.5405 2.6600 100.0
11.5041 -7.4600 2.7405 100.0
11.5041 -7.2400 2.7405 100.0
11.5041 7.2400 2.7405 100.0
11.5041 7.4600 2.7405 100.0
11.5695 -7.5500 3.9300 100.0
11.5695 7.5500 3.9300 100.0
11.5695 -7.4900 3.9460 100.0
11.5695 7.6539 3.9900 100.0
11.5695 -7.6700 4.0500 100.0
11.5695 7.4300 4.0500 100.0
11.5695 -7.6539 4.1100 100.0
11.5695 -7.4461 4.1100 100.0
11.5695 7.6539 4.1100 100.0
11.5695 7.4900 4.1539 100.0
11.5695 7.6100 4.1539 100.0
11.5695 -7.5500 4.1700 100.0
11.5837 -8.3500 1.8100 100.0
11.5837 8.3500 1.8100 100.0
11.5837 8.4200 1.8287 100.0
11.5837 -8.2288 1.8800 100.0
11.5837 -8.4900 1.9500 100.0
11.5837 8.2100 1.9500 100.0
11.5837 -8.2288 2.0200 100.0
11.5837 8.2288 2.0200 100.0
11.5837 8.4712 2.0200 100.0
11.5837 -8.4200 2.0712 100.0
11.5837 -8.2800 2.0712 100.0
11.5837 8.3500 2.0900 100.0
11.6667 -8.0000 3.0900 100.0
11.6667 8.0000 3.0900 100.0
11.6667 -7.9200 3.1114 100.0
11.6667 7.9200 3.1114 100.0
11.6667 -7.8614 3.1700 100.0
11.6667 8.1386 3.1700 100.0
11.6667 -8.1600 3.2500 100.0
11.6667 7.8400 3.2500 100.0
11.6667 -6.8250 3.0500 100.0
11.6667 -6.6750 3.0000 100.0
11.6667 -6.5250 3.0000 100.0
11.6667 -6.3750 3.0000 100.0
11.6667 -6.2250 3.0000 100.0
11.6667 -6.0750 3.0500 100.0
11.6667 6.0750 3.0500 100.0
11.6667 6.2250 3.0000 100.0
11.6667 6.3750 3.0000 100.0
11.6667 6.5250 3.0000 100.0
11.6667 6.6750 3.0000 100.0
11.6667 6.8250 3.0500 100.0
11.6667 -8.1386 3.3300 100.0
11.6667 -7.8614 3.3300 100.0
11.6667 8.1386 3.3300 100.0
11.6667 7.9200 3.3885 100.0
11.6667 8.0800 3.3885 100.0
11.6667 -8.0000 3.4100 100.0
11.6797 -7.8000 1.2700 100.0
11.6797 7.8000 1.2700 100.0
11.6797 -7.8900 1.2941 100.0
11.6797 7.7100 1.2941 100.0
11.6797 -7.6441 1.3600 100.0
11.6797 7.9559 1.3600 100.0
11.6797 -7.9800 1.4500 100.0
11.6797 7.6200 1.4500 100.0
11.6797 -7.9559 1.5400 100.0
11.6797 -7.6441 1.5400 100.0
11.6797 7.6441 1.5400 100.0
11.6797 7.9559 1.5400 100.0
11.6797 -7.8900 1.6058 100.0
11.6797 -7.7100 1.6058 100.0
11.6797 7.7100 1.6058 100.0
11.6797 7.8900 1.6058 100.0
11.6839 -7.3500 2.3300 100.0
11.6839 7.3500 2.3300 100.0
11.6839 -7.4600 2.3594 100.0
11.6839 7.2400 2.3594 100.0
11.6839 -7.1595 2.4400 100.0
11.6839 7.5405 2.4400 100.0
11.6839 -7.5700 2.5500 100.0
11.6839 7.1300 2.5500 100.0
11.6839 -7.5405 2.6600 100.0
11.6839 -7.1595 2.6600 100.0
11.6839 7.1595 2.6600 100.0
11.6839 7.5405 2.6600 100.0
11.6839 -7.4600 2.7405 100.0
11.6839 -7.2400 2.7405 100.0
11.6839 7.2400 2.7405 100.0
11.6839 7.4600 2.7405 100.0
11.7489 -7.5500 3.9300 100.0
11.7489 7.5500 3.9300 100.0
11.7489 -7.4900 3.9460 100.0
11.7489 7.6539 3.9900 100.0
11.7489 -7.6700 4.0500 100.0
11.7489 7.4300 4.0500 100.0
11.7489 -7.6539 4.1100 100.0
11.7489 -7.4461 4.1100 100.0
11.7489 7.6539 4.1100 100.0
11.7489 7.4900 4.1539 100.0
11.7489 7.6100 4.1539 100.0
11.7489 -7.5500 4.1700 100.0
11.7633 -8.3500 1.8100 100.0
11.7633 8.3500 1.8100 100.0
11.7633 8.4200 1.8287 100.0
11.7633 -8.2288 1.8800 100.0
11.7633 -8.4900 1.9500 100.0
11.7633 8.2100 1.9500 100.0
11.7633 -8.2288 2.0200 100.0
11.7633 8.2288 2.0200 100.0
11.7633 8.4712 2.0200 100.0
11.7633 -8.4200 2.0712 100.0
11.7633 -8.2800 2.0712 100.0
11.7633 8.3500 2.0900 100.0
11.8462 -8.0000 3.0900 100.0
11.8462 8.0000 3.0900 100.0
11.8462 -7.9200 3.1114 100.0
11.8462 7.9200 3.1114 100.0
11.8462 -7.8614 3.1700 100.0
11.8462 8.1386 3.1700 100.0
11.8462 -8.1600 3.2500 100.0
11.8462 7.8400 3.2500 100.0
11.8462 -6.8250 3.0500 100.0
11.8462 -6.6750 3.0000 100.0
11.8462 -6.5250 3.0000 100.0
11.8462 -6.3750 3.0000 100.0
11.8462 -6.2250 3.0000 100.0
11.8462 -6.0750 3.0500 100.0
11.8462 6.0750 3.0500 100.0
11.8462 6.2250 3.0000 100.0
11.8462 6.3750 3.0000 100.0
11.8462 6.5250 3.0000 100.0
11.8462 6.6750 3.0000 100.0
11.8462 6.8250 3.0500 100.0
11.8462 -8.1386 3.3300 100.0
11.8462 -7.8614 3.3300 100.0
11.8462 8.1386 3.3300 100.0
11.8462 7.9200 3.3885 100.0
11.8462 8.0800 3.3885 100.0
11.8462 -8.0000 3.4100 100.0
11.8594 -7.8000 1.2700 100.0
11.8594 7.8000 1.2700 100.0
11.8594 -7.8900 1.2941 100.0
11.8594 7.7100 1.2941 100.0
11.8594 -7.6441 1.3600 100.0
11.8594 7.9559 1.3600 100.0
11.8594 -7.9800 1.4500 100.0
11.8594 7.6200 1.4500 100.0
11.8594 -7.9559 1.5400 100.0
11.8594 -7.6441 1.5400 100.0
11.8594 7.6441 1.5400 100.0
11.8594 7.9559 1.5400 100.0
11.8594 -7.8900 1.6058 100.0
11.8594 -7.7100 1.6058 100.0
11.8594 7.7100 1.6058 100.0
11.8594 7.8900 1.6058 100.0
11.8636 -7.3500 2.3300 100.0
11.8636 7.3500 2.3300 100.0
11.8636 -7.4600 2.3594 100.0
11.8636 7.2400 2.3594 100.0
11.8636 -7.1595 2.4400 100.0
11.8636 7.5405 2.4400 100.0
11.8636 -7.5700 2.5500 100.0
11.8636 7.1300 2.5500 100.0
11.8636 -7.5405 2.6600 100.0
11.8636 -7.1595 2.6600 100.0
11.8636 7.1595 2.6600 100.0
11.8636 7.5405 2.6600 100.0
11.8636 -7.4600 2.7405 100.0
11.8636 -7.2400 2.7405 100.0
11.8636 7.2400 2.7405 100.0
11.8636 7.4600 2.7405 100.0
11.9283 -7.5500 3.9300 100.0
11.9283 7.5500 3.9300 100.0
11.9283 -7.4900 3.9460 100.0
11.9283 7.6539 3.9900 100.0
11.9283 -7.6700 4.0500 100.0
11.9283 7.4300 4.0500 100.0
11.9283 -7.6539 4.1100 100.0
11.9283 -7.4461 4.1100 100.0
11.9283 7.6539 4.1100 100.0
11.9283 7.4900 4.1539 100.0
11.9283 7.6100 4.1539 100.0
11.9283 -7.5500 4.1700 100.0
11.9429 -8.3500 1.8100 100.0
11.9429 8.3500 1.8100 100.0
11.9429 8.4200 1.8287 100.0
11.9429 -8.2288 1.8800 100.0
11.9429 -8.4900 1.9500 100.0
11.9429 8.2100 1.9500 100.0
11.9429 -8.2288 2.0200 100.0
11.9429 8.2288 2.0200 100.0
11.9429 8.4712 2.0200 100.0
11.9429 -8.4200 2.0712 100.0
11.9429 -8.2800 2.0712 100.0
11.9429 8.3500 2.0900 100.0
12.0256 -8.0000 3.0900 100.0
12.0256 8.0000 3.0900 100.0
12.0256 -7.9200 3.1114 100.0
12.0256 7.9200 3.1114 100.0
12.0256 -7.8614 3.1700 100.0
12.0256 8.1386 3.1700 100.0
12.0256 -8.1600 3.2500 100.0
12.0256 7.8400 3.2500 100.0
12.0256 -6.8250 3.0500 100.0
12.0256 -6.6750 3.0000 100.0
12.0256 -6.5250 3.0000 100.0
12.0256 -6.3750 3.0000 100.0
12.0256 -6.2250 3.0000 100.0
12.0256 -6.0750 3.0500 100.0
12.0256 6.0750 3.0500 100.0
12.0256 6.2250 3.0000 100.0
12.0256 6.3750 3.0000 100.0
12.0256 6.5250 3.0000 100.0
12.0256 6.6750 3.0000 100.0
12.0256 6.8250 3.0500 100.0
12.0256 -8.1386 3.3300 100.0
12.0256 -7.8614 3.3300 100.0
12.0256 8.1386 3.3300 100.0
12.0256 7.9200 3.3885 100.0
12.0256 8.0800 3.3885 100.0
12.0256 -8.0000 3.4100 100.0
12.0391 -7.8000 1.2700 100.0
12.0391 7.8000 1.2700 100.0
12.0391 -7.8900 1.2941 100.0
12.0391 7.7100 1.2941 100.0
12.0391 -7.6441 1.3600 100.0
12.0391 7.9559 1.3600 100.0
12.0391 -7.9800 1.4500 100.0
12.0391 7.6200 1.4500 100.0
12.0391 -7.9559 1.5400 100.0
12.0391 -7.6441 1.5400 100.0
12.0391 7.6441 1.5400 100.0
12.0391 7.9559 1.5400 100.0
12.0391 -7.8900 1.6058 100.0
12.0391 -7.7100 1.6058 100.0
12.0391 7.7100 1.6058 100.0
12.0391 7.8900 1.6058 100.0
12.0434 -7.3500 2.3300 100.0
12.0434 7.3500 2.3300 100.0
12.0434 -7.4600 2.3594 100.0
12.0434 7.2400 2.3594 100.0
12.0434 -7.1595 2.4400 100.0
12.0434 7.5405 2.4400 100.0
12.0434 -7.5700 2.5500 100.0
12.0434 7.1300 2.5500 100.0
12.0434 -7.5405 2.6600 100.0
12.0434 -7.1595 2.6600 100.0
12.0434 7.1595 2.6600 100.0
12.0434 7.5405 2.6600 100.0
12.0434 -7.4600 2.7405 100.0
12.0434 -7.2400 2.7405 100.0
12.0434 7.2400 2.7405 100.0
12.0434 7.4600 2.7405 100.0
12.1076 -7.5500 3.9300 100.0
12.1076 7.5500 3.9300 100.0
12.1076 -7.4900 3.9460 100.0
12.1076 7.6539 3.9900 100.0
12.1076 -7.6700 4.0500 100.0
12.1076 7.4300 4.0500 100.0
12.1076 -7.6539 4.1100 100.0
12.1076 -7.4461 4.1100 100.0
12.1076 7.6539 4.1100 100.0
12.1076 7.4900 4.1539 100.0
12.1076 7.6100 4.1539 100.0
12.1076 -7.5500 4.1700 100.0
12.1224 -8.3500 1.8100 100.0
12.1224 8.3500 1.8100 100.0
12.1224 8.4200 1.8287 100.0
12.1224 -8.2288 1.8800 100.0
12.1224 -8.4900 1.9500 100.0
12.1224 8.2100 1.9500 100.0
12.1224 -8.2288 2.0200 100.0
12.1224 8.2288 2.0200 100.0
12.1224 8.4712 2.0200 100.0
12.1224 -8.4200 2.0712 100.0
12.1224 -8.2800 2.0712 100.0
12.1224 8.3500 2.0900 100.0
12.2051 -8.0000 3.0900 100.0
12.2051 8.0000 3.0900 100.0
12.2051 -7.9200 3.1114 100.0
12.2051 7.9200 3.1114 100.0
12.2051 -7.8614 3.1700 100.0
12.2051 8.1386 3.1700 100.0
12.2051 -8.1600 3.2500 100.0
12.2051 7.8400 3.2500 100.0
12.2051 -6.8250 3.0500 100.0
12.2051 -6.6750 3.0000 100.0
12.2051 -6.5250 3.0000 100.0
12.2051 -6.3750 3.0000 100.0
12.2051 -6.2250 3.0000 100.0
12.2051 -6.0750 3.0500 100.0
12.2051 6.0750 3.0500 100.0
12.2051 6.2250 3.0000 100.0
12.2051 6.3750 3.0000 100.0
12.2051 6.5250 3.0000 100.0
12.2051 6.6750 3.0000 100.0
12.2051 6.8250 3.0500 100.0
12.2051 -8.1386 3.3300 100.0
12.2051 -7.8614 3.3300 100.0
12.2051 8.1386 3.3300 100.0
12.2051 7.9200 3.3885 100.0
12.2051 8.0800 3.3885 100.0
12.2051 -8.0000 3.4100 100.0
12.2187 -7.8000 1.2700 100.0
12.2187 7.8000 1.2700 100.0
12.2187 -7.8900 1.2941 100.0
12.2187 7.7100 1.2941 100.0
12.2187 -7.6441 1.3600 100.0
12.2187 7.9559 1.3600 100.0
12.2187 -7.9800 1.4500 100.0
12.2187 7.6200 1.4500 100.0
12.2188 -7.9559 1.5400 100.0
12.2188 -7.6441 1.5400 100.0
12.2188 7.6441 1.5400 100.0
12.2188 7.9559 1.5400 100.0
12.2188 -7.8900 1.6058 100.0
12.2188 -7.7100 1.6058 100.0
12.2188 7.7100 1.6058 100.0
12.2188 7.8900 1.6058 100.0
12.2231 -7.3500 2.3300 100.0
12.2231 7.3500 2.3300 100.0
12.2231 -7.4600 2.3594 100.0
12.2231 7.2400 2.3594 100.0
12.2231 -7.1595 2.4400 100.0
12.2231 7.5405 2.4400 100.0
12.2231 -7.5700 2.5500 100.0
12.2231 7.1300 2.5500 100.0
12.2231 -7.5405 2.6600 100.0
12.2231 -7.1595 2.6600 100.0
12.2231 7.1595 2.6600 100.0
12.2231 7.5405 2.6600 100.0
12.2231 -7.4600 2.7405 100.0
12.2231 -7.2400 2.7405 100.0
12.2231 7.2400 2.7405 100.0
12.2231 7.4600 2.7405 100.0
12.2870 -7.5500 3.9300 100.0
12.2870 7.5500 3.9300 100.0
12.2870 -7.4900 3.9460 100.0
12.2870 7.6539 3.9900 100.0
12.2870 -7.6700 4.0500 100.0
12.2870 7.4300 4.0500 100.0
12.2870 -7.6539 4.1100 100.0
12.2870 -7.4461 4.1100 100.0
12.2870 7.6539 4.1100 100.0
12.2870 7.4900 4.1539 100.0
12.2870 7.6100 4.1539 100.0
12.2870 -7.5500 4.1700 100.0
12.3020 -8.3500 1.8100 100.0
12.3020 8.3500 1.8100 100.0
12.3020 8.4200 1.8287 100.0
12.3020 -8.2288 1.8800 100.0
12.3020 -8.4900 1.9500 100.0
12.3020 8.2100 1.9500 100.0
12.3020 -8.2288 2.0200 100.0
12.3020 8.2288 2.0200 100.0
12.3020 8.4712 2.0200 100.0
12.3020 -8.4200 2.0712 100.0
12.3020 -8.2800 2.0712 100.0
12.3020 8.3500 2.0900 100.0
12.3846 -8.0000 3.0900 100.0
12.3846 8.0000 3.0900 100.0
12.3846 -7.9200 3.1114 100.0
12.3846 7.9200 3.1114 100.0
12.3846 -7.8614 3.1700 100.0
12.3846 8.1386 3.1700 100.0
12.3846 -8.1600 3.2500 100.0
12.3846 7.8400 3.2500 100.0
12.3846 -6.8250 3.0500 100.0
12.3846 -6.6750 3.0000 100.0
12.3846 -6.5250 3.0000 100.0
12.3846 -6.3750 3.0000 100.0
12.3846 -6.2250 3.0000 100.0
12.3846 -6.0750 3.0500 100.0
12.3846 6.0750 3.0500 100.0
12.3846 6.2250 3.0000 100.0
12.3846 6.3750 3.0000 100.0
12.3846 6.5250 3.0000 100.0
12.3846 6.6750 3.0000 100.0
12.3846 6.8250 3.0500 100.0
12.3846 -8.1386 3.3300 100.0
12.3846 -7.8614 3.3300 100.0
12.3846 8.1386 3.3300 100.0
12.3846 7.9200 3.3885 100.0
12.3846 8.0800 3.3885 100.0
12.3846 -8.0000 3.4100 100.0
12.3984 -7.8000 1.2700 100.0
12.3984 7.8000 1.2700 100.0
12.3984 -7.8900 1.2941 100.0
12.3984 7.7100 1.2941 100.0
12.3984 -7.6441 1.3600 100.0
12.3984 7.9559 1.3600 100.0
12.3984 -7.9800 1.4500 100.0
12.3984 7.6200 1.4500 100.0
12.3984 -7.9559 1.5400 100.0
12.3984 -7.6441 1.5400 100.0
12.3984 7.6441 1.5400 100.0
12.3984 7.9559 1.5400 100.0
12.3984 -7.8900 1.6058 100.0
12.3984 -7.7100 1.6058 100.0
12.3984 7.7100 1.6058 100.0
12.3984 7.8900 1.6058 100.0
12.4029 -7.3500 2.3300 100.0
12.4029 7.3500 2.3300 100.0
12.4029 -7.4600 2.3594 100.0
12.4029 7.2400 2.3594 100.0
12.4029 -7.1595 2.4400 100.0
12.4029 7.5405 2.4400 100.0
12.4029 -7.5700 2.5500 100.0
12.4029 7.1300 2.5500 100.0
12.4029 -7.5405 2.6600 100.0
12.4029 -7.1595 2.6600 100.0
12.4029 7.1595 2.6600 100.0
12.4029 7.5405 2.6600 100.0
12.4029 -7.4600 2.7405 100.0
12.4029 -7.2400 2.7405 100.0
12.4029 7.2400 2.7405 100.0
12.4029 7.4600 2.7405 100.0
12.4664 -7.5500 3.9300 100.0
12.4664 7.5500 3.9300 100.0
12.4664 -7.4900 3.9460 100.0
12.4664 7.6539 3.9900 100.0
12.4664 -7.6700 4.0500 100.0
12.4664 7.4300 4.0500 100.0
12.4664 -7.6539 4.1100 100.0
12.4664 -7.4461 4.1100 100.0
12.4664 7.6539 4.1100 100.0
12.4664 7.4900 4.1539 100.0
12.4664 7.6100 4.1539 100.0
12.4664 -7.5500 4.1700 100.0
12.4816 -8.3500 1.8100 100.0
12.4816 8.3500 1.8100 100.0
12.4816 8.4200 1.8287 100.0
12.4816 -8.2288 1.8800 100.0
12.4816 -8.4900 1.9500 100.0
12.4816 8.2100 1.9500 100.0
12.4816 -8.2288 2.0200 100.0
12.4816 8.2288 2.0200 100.0
12.4816 8.4712 2.0200 100.0
12.4816 -8.4200 2.0712 100.0
12.4816 -8.2800 2.0712 100.0
12.4816 8.3500 2.0900 100.0
12.5641 -8.0000 3.0900 100.0
12.5641 8.0000 3.0900 100.0
12.5641 -7.9200 3.1114 100.0
12.5641 7.9200 3.1114 100.0
12.5641 -7.8614 3.1700 100.0
12.5641 8.1386 3.1700 100.0
12.5641 -8.1600 3.2500 100.0
12.5641 7.8400 3.2500 100.0
12.5641 -6.8250 3.0500 100.0
12.5641 -6.6750 3.0000 100.0
12.5641 -6.5250 3.0000 100.0
12.5641 -6.3750 3.0000 100.0
12.5641 -6.2250 3.0000 100.0
12.5641 -6.0750 3.0500 100.0
12.5641 6.0750 3.0500 100.0
12.5641 6.2250 3.0000 100.0
12.5641 6.3750 3.0000 100.0
12.5641 6.5250 3.0000 100.0
12.5641 6.6750 3.0000 100.0
12.5641 6.8250 3.0500 100.0
12.5641 -8.1386 3.3300 100.0
12.5641 -7.8614 3.3300 100.0
12.5641 8.1386 3.3300 100.0
12.5641 7.9200 3.3885 100.0
12.5641 8.0800 3.3885 100.0
12.5641 -8.0000 3.4100 100.0
12.5781 -7.8000 1.2700 100.0
12.5781 7.8000 1.2700 100.0
12.5781 -7.8900 1.2941 100.0
12.5781 7.7100 1.2941 100.0
12.5781 -7.6441 1.3600 100.0
12.5781 7.9559 1.3600 100.0
12.5781 -7.9800 1.4500 100.0
12.5781 7.6200 1.4500 100.0
12.5781 -7.9559 1.5400 100.0
12.5781 -7.6441 1.5400 100.0
12.5781 7.6441 1.5400 100.0
12.5781 7.9559 1.5400 100.0
12.5781 -7.8900 1.6058 100.0
12.5781 -7.7100 1.6058 100.0
12.5781 7.7100 1.6058 100.0
12.5781 7.8900 1.6058 100.0
12.5826 -7.3500 2.3300 100.0
12.5826 7.3500 2.3300 100.0
12.5826 -7.4600 2.3594 100.0
12.5826 7.2400 2.3594 100.0
12.5826 -7.1595 2.4400 100.0
12.5826 7.5405 2.4400 100.0
12.5826 -7.5700 2.5500 100.0
12.5826 7.1300 2.5500 100.0
12.5826 -7.5405 2.6600 100.0
12.5826 -7.1595 2.6600 100.0
12.5826 7.1595 2.6600 100.0
12.5826 7.5405 2.6600 100.0
12.5826 -7.4600 2.7405 100.0
12.5826 -7.2400 2.7405 100.0
12.5826 7.2400 2.7405 100.0
12.5826 7.4600 2.7405 100.0
12.6457 -7.5500 3.9300 100.0
12.6457 7.5500 3.9300 100.0
12.6457 -7.4900 3.9460 100.0
12.6457 7.6539 3.9900 100.0
12.6457 -7.6700 4.0500 100.0
12.6457 7.4300 4.0500 100.0
12.6457 -7.6539 4.1100 100.0
12.6457 -7.4461 4.1100 100.0
12.6457 7.6539 4.1100 100.0
12.6457 7.4900 4.1539 100.0
12.6457 7.6100 4.1539 100.0
12.6457 -7.5500 4.1700 100.0
12.6612 -8.3500 1.8100 100.0
12.6612 8.3500 1.8100 100.0
12.6612 8.4200 1.8287 100.0
12.6612 -8.2288 1.8800 100.0
12.6612 -8.4900 1.9500 100.0
12.6612 8.2100 1.9500 100.0
12.6612 -8.2288 2.0200 100.0
12.6612 8.2288 2.0200 100.0
12.6612 8.4712 2.0200 100.0
12.6612 -8.4200 2.0712 100.0
12.6612 -8.2800 2.0712 100.0
12.6612 8.3500 2.0900 100.0
12.7436 -8.0000 3.0900 100.0
12.7436 8.0000 3.0900 100.0
12.7436 -7.9200 3.1114 100.0
12.7436 7.9200 3.1114 100.0
12.7436 -7.8614 3.1700 100.0
12.7436 8.1386 3.1700 100.0
12.7436 -8.1600 3.2500 100.0
12.7436 7.8400 3.2500 100.0
12.7436 -6.8250 3.0500 100.0
12.7436 -6.6750 3.0000 100.0
12.7436 -6.5250 3.0000 100.0
12.7436 -6.3750 3.0000 100.0
12.7436 -6.2250 3.0000 100.0
12.7436 -6.0750 3.0500 100.0
12.7436 6.0750 3.0500 100.0
12.7436 6.2250 3.0000 100.0
12.7436 6.3750 3.0000 100.0
12.7436 6.5250 3.0000 100.0
12.7436 6.6750 3.0000 100.0
12.7436 6.8250 3.0500 100.0
12.7436 -8.1386 3.3300 100.0
12.7436 -7.8614 3.3300 100.0
12.7436 8.1386 3.3300 100.0
12.7436 7.9200 3.3885 100.0
12.7436 8.0800 3.3885 100.0
12.7436 -8.0000 3.4100 100.0
12.7500 12.0000 0.0000 100.0
12.7500 12.0000 0.1741 100.0
12.7500 12.0000 0.3481 100.0
12.7500 12.0000 0.5222 100.0
12.7500 12.0000 0.6963 100.0
12.7500 12.0000 0.8704 100.0
12.7500 12.0000 1.0444 100.0
12.7500 12.0000 1.2185 100.0
12.7500 12.0000 1.3926 100.0
12.7500 12.0000 1.5667 100.0
12.7500 12.0000 1.7407 100.0
12.7500 12.0000 1.9148 100.0
12.7500 12.0000 2.0889 100.0
12.7500 12.0000 2.2630 100.0
12.7500 12.0000 2.4370 100.0
12.7500 12.0000 2.6111 100.0
12.7500 12.0000 2.7852 100.0
12.7500 12.0000 2.9593 100.0
12.7500 12.0000 3.1333 100.0
12.7500 12.0000 3.3074 100.0
12.7500 12.0000 3.4815 100.0
12.7500 12.0000 3.6556 100.0
12.7500 12.0000 3.8296 100.0
12.7500 12.0000 4.0037 100.0
12.7500 12.0000 4.1778 100.0
12.7500 12.0000 4.3519 100.0
12.7500 12.0000 4.5259 100.0
12.7500 12.0000 4.7000 100.0
12.7578 -7.8000 1.2700 100.0
12.7578 7.8000 1.2700 100.0
12.7578 -7.8900 1.2941 100.0
12.7578 7.7100 1.2941 100.0
12.7578 -7.6441 1.3600 100.0
12.7578 7.9559 1.3600 100.0
12.7578 -7.9800 1.4500 100.0
12.7578 7.6200 1.4500 100.0
12.7578 -7.9559 1.5400 100.0
12.7578 -7.6441 1.5400 100.0
12.7578 7.6441 1.5400 100.0
12.7578 7.9559 1.5400 100.0
12.7578 -7.8900 1.6058 100.0
12.7578 -7.7100 1.6058 100.0
12.7578 7.7100 1.6058 100.0
12.7578 7.8900 1.6058 100.0
12.7590 11.8230 0.0000 100.0
12.7590 11.8230 0.1741 100.0
12.7590 11.8230 0.3481 100.0
12.7590 11.8230 0.5222 100.0
12.7590 11.8230 0.6963 100.0
12.7590 11.8230 0.8704 100.0
12.7590 11.8230 1.0444 100.0
12.7590 11.8230 1.2185 100.0
12.7590 11.8230 1.3926 100.0
12.7590 11.8230 1.5667 100.0
12.7590 11.8230 1.7407 100.0
12.7590 11.8230 1.9148 100.0
12.7590 11.8230 2.0889 100.0
12.7590 11.8230 2.2630 100.0
12.7590 11.8230 2.4370 100.0
12.7590 11.8230 2.6111 100.0
12.7590 11.8230 2.7852 100.0
12.7590 11.8230 2.9593 100.0
12.7590 11.8230 3.1333 100.0
12.7590 11.8230 3.3074 100.0
12.7590 11.8230 3.4815 100.0
12.7590 11.8230 3.6556 100.0
12.7590 11.8230 3.8296 100.0
12.7590 11.8230 4.0037 100.0
12.7590 11.8230 4.1778 100.0
12.7590 11.8230 4.3519 100.0
12.7590 11.8230 4.5259 100.0
12.7590 11.8230 4.7000 100.0
12.7590 12.1770 0.0000 100.0
12.7590 12.1770 0.1741 100.0
12.7590 12.1770 0.3481 100.0
12.7590 12.1770 0.5222 100.0
12.7590 12.1770 0.6963 100.0
12.7590 12.1770 0.8704 100.0
12.7590 12.1770 1.0444 100.0
12.7590 12.1770 1.2185 100.0
12.7590 12.1770 1.3926 100.0
12.7590 12.1770 1.5667 100.0
12.7590 12.1770 1.7407 100.0
12.7590 12.1770 1.9148 100.0
12.7590 12.1770 2.0889 100.0
12.7590 12.1770 2.2630 100.0
12.7590 12.1770 2.4370 100.0
12.7590 12.1770 2.6111 100.0
12.7590 12.1770 2.7852 100.0
12.7590 12.1770 2.9593 100.0
12.7590 12.1770 3.1333 100.0
12.7590 12.1770 3.3074 100.0
12.7590 12.1770 3.4815 100.0
12.7590 12.1770 3.6556 100.0
12.7590 12.1770 3.8296 100.0
12.7590 12.1770 4.0037 100.0
12.7590 12.1770 4.1778 100.0
12.7590 12.1770 4.3519 100.0
12.7590 12.1770 4.5259 100.0
12.7590 12.1770 4.7000 100.0
12.7624 -7.3500 2.3300 100.0
12.7624 7.3500 2.3300 100.0
12.7624 -7.4600 2.3594 100.0
12.7624 7.2400 2.3594 100.0
12.7624 -7.1595 2.4400 100.0
12.7624 7.5405 2.4400 100.0
12.7624 -7.5700 2.5500 100.0
12.7624 7.1300 2.5500 100.0
12.7624 -7.5405 2.6600 100.0
12.7624 -7.1595 2.6600 100.0
12.7624 7.1595 2.6600 100.0
12.7624 7.5405 2.6600 100.0
12.7624 -7.4600 2.7405 100.0
12.7624 -7.2400 2.7405 100.0
12.7624 7.2400 2.7405 100.0
12.7624 7.4600 2.7405 100.0
12.7858 11.6477 0.0000 100.0
12.7858 11.6477 0.1741 100.0
12.7858 11.6477 0.3481 100.0
12.7858 11.6477 0.5222 100.0
12.7858 11.6477 0.6963 100.0
12.7858 11.6477 0.8704 100.0
12.7858 11.6477 1.0444 100.0
12.7858 11.6477 1.2185 100.0
12.7858 11.6477 1.3926 100.0
12.7858 11.6477 1.5667 100.0
12.7858 11.6477 1.7407 100.0
12.7858 11.6477 1.9148 100.0
12.7858 11.6477 2.0889 100.0
12.7858 11.6477 2.2630 100.0
12.7858 11.6477 2.4370 100.0
12.7858 11.6477 2.6111 100.0
12.7858 11.6477 2.7852 100.0
12.7858 11.6477 2.9593 100.0
12.7858 11.6477 3.1333 100.0
12.7858 11.6477 3.3074 100.0
12.7858 11.6477 3.4815 100.0
12.7858 11.6477 3.6556 100.0
12.7858 11.6477 3.8296 100.0
12.7858 11.6477 4.0037 100.0
12.7858 11.6477 4.1778 100.0
12.7858 11.6477 4.3519 100.0
12.7858 11.6477 4.5259 100.0
12.7858 11.6477 4.7000 100.0
12.7858 12.3523 0.0000 100.0
12.7858 12.3523 0.1741 100.0
12.7858 12.3523 0.3481 100.0
12.7858 12.3523 0.5222 100.0
12.7858 12.3523 0.6963 100.0
12.7858 12.3523 0.8704 100.0
12.7858 12.3523 1.0444 100.0
12.7858 12.3523 1.2185 100.0
12.7858 12.3523 1.3926 100.0
12.7858 12.3523 1.5667 100.0
12.7858 12.3523 1.7407 100.0
12.7858 12.3523 1.9148 100.0
12.7858 12.3523 2.0889 100.0
12.7858 12.3523 2.2630 100.0
12.7858 12.3523 2.4370 100.0
12.7858 12.3523 2.6111 100.0
12.7858 12.3523 2.7852 100.0
12.7858 12.3523 2.9593 100.0
12.7858 12.3523 3.1333 100.0
12.7858 12.3523 3.3074 100.0
12.7858 12.3523 3.4815 100.0
12.7858 12.3523 3.6556 100.0
12.7858 12.3523 3.8296 100.0
12.7858 12.3523 4.0037 100.0
12.7858 12.3523 4.1778 100.0
12.7858 12.3523 4.3519 100.0
12.7858 12.3523 4.5259 100.0
12.7858 12.3523 4.7000 100.0
12.8251 -7.5500 3.9300 100.0
12.8251 7.5500 3.9300 100.0
12.8251 -7.4900 3.9460 100.0
12.8251 7.6539 3.9900 100.0
12.8251 -7.6700 4.0500 100.0
12.8251 7.4300 4.0500 100.0
12.8251 -7.6539 4.1100 100.0
12.8251 -7.4461 4.1100 100.0
12.8251 7.6539 4.1100 100.0
12.8251 7.4900 4.1539 100.0
12.8251 7.6100 4.1539 100.0
12.8251 -7.5500 4.1700 100.0
12.8303 11.4761 0.0000 100.0
12.8303 11.4761 0.1741 100.0
12.8303 11.4761 0.3481 100.0
12.8303 11.4761 0.5222 100.0
12.8303 11.4761 0.6963 100.0
12.8303 11.4761 0.8704 100.0
12.8303 11.4761 1.0444 100.0
12.8303 11.4761 1.2185 100.0
12.8303 11.4761 1.3926 100.0
12.8303 11.4761 1.5667 100.0
12.8303 11.4761 1.7407 100.0
12.8303 11.4761 1.9148 100.0
12.8303 11.4761 2.0889 100.0
12.8303 11.4761 2.2630 100.0
12.8303 11.4761 2.4370 100.0
12.8303 11.4761 2.6111 100.0
12.8303 11.4761 2.7852 100.0
12.8303 11.4761 2.9593 100.0
12.8303 11.4761 3.1333 100.0
12.8303 11.4761 3.3074 100.0
12.8303 11.4761 3.4815 100.0
12.8303 11.4761 3.6556 100.0
12.8303 11.4761 3.8296 100.0
12.8303 11.4761 4.0037 100.0
12.8303 11.4761 4.1778 100.0
12.8303 11.4761 4.3519 100.0
12.8303 11.4761 4.5259 100.0
12.8303 11.4761 4.7000 100.0
12.8303 12.5239 0.0000 100.0
12.8303 12.5239 0.1741 100.0
12.8303 12.5239 0.3481 100.0
12.8303 12.5239 0.5222 100.0
12.8303 12.5239 0.6963 100.0
12.8303 12.5239 0.8704 100.0
12.8303 12.5239 1.0444 100.0
12.8303 12.5239 1.2185 100.0
12.8303 12.5239 1.3926 100.0
12.8303 12.5239 1.5667 100.0
12.8303 12.5239 1.7407 100.0
12.8303 12.5239 1.9148 100.0
12.8303 12.5239 2.0889 100.0
12.8303 12.5239 2.2630 100.0
12.8303 12.5239 2.4370 100.0
12.8303 12.5239 2.6111 100.0
12.8303 12.5239 2.7852 100.0
12.8303 12.5239 2.9593 100.0
12.8303 12.5239 3.1333 100.0
12.8303 12.5239 3.3074 100.0
12.8303 12.5239 3.4815 100.0
12.8303 12.5239 3.6556 100.0
12.8303 12.5239 3.8296 100.0
12.8303 12.5239 4.0037 100.0
12.8303 12.5239 4.1778 100.0
12.8303 12.5239 4.3519 100.0
12.8303 12.5239 4.5259 100.0
12.8303 12.5239 4.7000 100.0
12.8408 -8.3500 1.8100 100.0
12.8408 8.3500 1.8100 100.0
12.8408 8.4200 1.8287 100.0
12.8408 -8.2288 1.8800 100.0
12.8408 -8.4900 1.9500 100.0
12.8408 8.2100 1.9500 100.0
12.8408 -8.2288 2.0200 100.0
12.8408 8.2288 2.0200 100.0
12.8408 8.4712 2.0200 100.0
12.8408 -8.4200 2.0712 100.0
12.8408 -8.2800 2.0712 100.0
12.8408 8.3500 2.0900 100.0
12.8918 11.3099 0.0000 100.0
12.8918 11.3099 0.1741 100.0
12.8918 11.3099 0.3481 100.0
12.8918 11.3099 0.5222 100.0
12.8918 11.3099 0.6963 100.0
12.8918 11.3099 0.8704 100.0
12.8918 11.3099 1.0444 100.0
12.8918 11.3099 1.2185 100.0
12.8918 11.3099 1.3926 100.0
12.8918 11.3099 1.5667 100.0
12.8918 11.3099 1.7407 100.0
12.8918 11.3099 1.9148 100.0
12.8918 11.3099 2.0889 100.0
12.8918 11.3099 2.2630 100.0
12.8918 11.3099 2.4370 100.0
12.8918 11.3099 2.6111 100.0
12.8918 11.3099 2.7852 100.0
12.8918 11.3099 2.9593 100.0
12.8918 11.3099 3.1333 100.0
12.8918 11.3099 3.3074 100.0
12.8918 11.3099 3.4815 100.0
12.8918 11.3099 3.6556 100.0
12.8918 11.3099 3.8296 100.0
12.8918 11.3099 4.0037 100.0
12.8918 11.3099 4.1778 100.0
12.8918 11.3099 4.3519 100.0
12.8918 11.3099 4.5259 100.0
12.8918 11.3099 4.7000 100.0
12.8918 12.6901 0.0000 100.0
12.8918 12.6901 0.1741 100.0
12.8918 12.6901 0.3481 100.0
12.8918 12.6901 0.5222 100.0
12.8918 12.6901 0.6963 100.0
12.8918 12.6901 0.8704 100.0
12.8918 12.6901 1.0444 100.0
12.8918 12.6901 1.2185 100.0
12.8918 12.6901 1.3926 100.0
12.8918 12.6901 1.5667 100.0
12.8918 12.6901 1.7407 100.0
12.8918 12.6901 1.9148 100.0
12.8918 12.6901 2.0889 100.0
12.8918 12.6901 2.2630 100.0
12.8918 12.6901 2.4370 100.0
12.8918 12.6901 2.6111 100.0
12.8918 12.6901 2.7852 100.0
12.8918 12.6901 2.9593 100.0
12.8918 12.6901 3.1333 100.0
12.8918 12.6901 3.3074 100.0
12.8918 12.6901 3.4815 100.0
12.8918 12.6901 3.6556 100.0
12.8918 12.6901 3.8296 100.0
12.8918 12.6901 4.0037 100.0
12.8918 12.6901 4.1778 100.0
12.8918 12.6901 4.3519 100.0
12.8918 12.6901 4.5259 100.0
12.8918 12.6901 4.7000 100.0
12.9231 -8.0000 3.0900 100.0
12.9231 8.0000 3.0900 100.0
12.9231 -7.9200 3.1114 100.0
12.9231 7.9200 3.1114 100.0
12.9231 -7.8614 3.1700 100.0
12.9231 8.1386 3.1700 100.0
12.9231 -8.1600 3.2500 100.0
12.9231 7.8400 3.2500 100.0
12.9231 -6.8250 3.0500 100.0
12.9231 -6.6750 3.0000 100.0
12.9231 -6.5250 3.0000 100.0
12.9231 -6.3750 3.0000 100.0
12.9231 -6.2250 3.0000 100.0
12.9231 -6.0750 3.0500 100.0
12.9231 6.0750 3.0500 100.0
12.9231 6.2250 3.0000 100.0
12.9231 6.3750 3.0000 100.0
12.9231 6.5250 3.0000 100.0
12.9231 6.6750 3.0000 100.0
12.9231 6.8250 3.0500 100.0
12.9231 -8.1386 3.3300 100.0
12.9231 -7.8614 3.3300 100.0
12.9231 8.1386 3.3300 100.0
12.9231 7.9200 3.3885 100.0
12.9231 8.0800 3.3885 100.0
12.9231 -8.0000 3.4100 100.0
12.9276 11.9101 0.0000 100.0
12.9276 11.9101 4.7000 100.0
12.9276 12.0899 0.0000 100.0
12.9276 12.0899 4.7000 100.0
12.9375 -7.8000 1.2700 100.0
12.9375 7.8000 1.2700 100.0
12.9375 -7.8900 1.2941 100.0
12.9375 7.7100 1.2941 100.0
12.9375 -7.6441 1.3600 100.0
12.9375 7.9559 1.3600 100.0
12.9375 -7.9800 1.4500 100.0
12.9375 7.6200 1.4500 100.0
12.9375 -7.9559 1.5400 100.0
12.9375 -7.6441 1.5400 100.0
12.9375 7.6441 1.5400 100.0
12.9375 7.9559 1.5400 100.0
12.9375 -7.8900 1.6058 100.0
12.9375 -7.7100 1.6058 100.0
12.9375 7.7100 1.6058 100.0
12.9375 7.8900 1.6058 100.0
12.9421 -7.3500 2.3300 100.0
12.9421 7.3500 2.3300 100.0
12.9421 -7.4600 2.3594 100.0
12.9421 7.2400 2.3594 100.0
12.9421 -7.1595 2.4400 100.0
12.9421 7.5405 2.4400 100.0
12.9421 -7.5700 2.5500 100.0
12.9421 7.1300 2.5500 100.0
12.9421 -7.5405 2.6600 100.0
12.9421 -7.1595 2.6600 100.0
12.9421 7.1595 2.6600 100.0
12.9421 7.5405 2.6600 100.0
12.9421 -7.4600 2.7405 100.0
12.9421 -7.2400 2.7405 100.0
12.9421 7.2400 2.7405 100.0
12.9421 7.4600 2.7405 100.0
12.9481 12.2686 0.0000 100.0
12.9481 12.2686 4.7000 100.0
12.9481 11.7314 0.0000 100.0
12.9481 11.7314 4.7000 100.0
12.9699 11.1507 0.0000 100.0
12.9699 11.1507 0.1741 100.0
12.9699 11.1507 0.3481 100.0
12.9699 11.1507 0.5222 100.0
12.9699 11.1507 0.6963 100.0
12.9699 11.1507 0.8704 100.0
12.9699 11.1507 1.0444 100.0
12.9699 11.1507 1.2185 100.0
12.9699 11.1507 1.3926 100.0
12.9699 11.1507 1.5667 100.0
12.9699 11.1507 1.7407 100.0
12.9699 11.1507 1.9148 100.0
12.9699 11.1507 2.0889 100.0
12.9699 11.1507 2.2630 100.0
12.9699 11.1507 2.4370 100.0
12.9699 11.1507 2.6111 100.0
12.9699 11.1507 2.7852 100.0
12.9699 11.1507 2.9593 100.0
12.9699 11.1507 3.1333 100.0
12.9699 11.1507 3.3074 100.0
12.9699 11.1507 3.4815 100.0
12.9699 11.1507 3.6556 100.0
12.9699 11.1507 3.8296 100.0
12.9699 11.1507 4.0037 100.0
12.9699 11.1507 4.1778 100.0
12.9699 11.1507 4.3519 100.0
12.9699 11.1507 4.5259 100.0
12.9699 11.1507 4.7000 100.0
12.9699 12.8493 0.0000 100.0
12.9699 12.8493 0.1741 100.0
12.9699 12.8493 0.3481 100.0
12.9699 12.8493 0.5222 100.0
12.9699 12.8493 0.6963 100.0
12.9699 12.8493 0.8704 100.0
12.9699 12.8493 1.0444 100.0
12.9699 12.8493 1.2185 100.0
12.9699 12.8493 1.3926 100.0
12.9699 12.8493 1.5667 100.0
12.9699 12.8493 1.7407 100.0
12.9699 12.8493 1.9148 100.0
12.9699 12.8493 2.0889 100.0
12.9699 12.8493 2.2630 100.0
12.9699 12.8493 2.4370 100.0
12.9699 12.8493 2.6111 100.0
12.9699 12.8493 2.7852 100.0
12.9699 12.8493 2.9593 100.0
12.9699 12.8493 3.1333 100.0
12.9699 12.8493 3.3074 100.0
12.9699 12.8493 3.4815 100.0
12.9699 12.8493 3.6556 100.0
12.9699 12.8493 3.8296 100.0
12.9699 12.8493 4.0037 100.0
12.9699 12.8493 4.1778 100.0
12.9699 12.8493 4.3519 100.0
12.9699 12.8493 4.5259 100.0
12.9699 12.8493 4.7000 100.0
12.9888 11.5563 0.0000 100.0
12.9888 11.5563 4.7000 100.0
12.9888 12.4437 0.0000 100.0
12.9888 12.4437 4.7000 100.0
13.0045 -7.5500 3.9300 100.0
13.0045 7.5500 3.9300 100.0
13.0045 -7.4900 3.9460 100.0
13.0045 7.6539 3.9900 100.0
13.0045 -7.6700 4.0500 100.0
13.0045 7.4300 4.0500 100.0
13.0045 -7.6539 4.1100 100.0
13.0045 -7.4461 4.1100 100.0
13.0045 7.6539 4.1100 100.0
13.0045 7.4900 4.1539 100.0
13.0045 7.6100 4.1539 100.0
13.0045 -7.5500 4.1700 100.0
13.0204 -8.3500 1.8100 100.0
13.0204 8.3500 1.8100 100.0
13.0204 8.4200 1.8287 100.0
13.0204 -8.2288 1.8800 100.0
13.0204 -8.4900 1.9500 100.0
13.0204 8.2100 1.9500 100.0
13.0204 -8.2288 2.0200 100.0
13.0204 8.2288 2.0200 100.0
13.0204 8.4712 2.0200 100.0
13.0204 -8.4200 2.0712 100.0
13.0204 -8.2800 2.0712 100.0
13.0204 8.3500 2.0900 100.0
13.0492 11.3869 0.0000 100.0
13.0492 11.3869 4.7000 100.0
13.0492 12.6131 0.0000 100.0
13.0492 12.6131 4.7000 100.0
13.0637 11.0003 0.0000 100.0
13.0637 11.0003 0.1741 100.0
13.0637 11.0003 0.3481 100.0
13.0637 11.0003 0.5222 100.0
13.0637 11.0003 0.6963 100.0
13.0637 11.0003 0.8704 100.0
13.0637 11.0003 1.0444 100.0
13.0637 11.0003 1.2185 100.0
13.0637 11.0003 1.3926 100.0
13.0637 11.0003 1.5667 100.0
13.0637 11.0003 1.7407 100.0
13.0637 11.0003 1.9148 100.0
13.0637 11.0003 2.0889 100.0
13.0637 11.0003 2.2630 100.0
13.0637 11.0003 2.4370 100.0
13.0637 11.0003 2.6111 100.0
13.0637 11.0003 2.7852 100.0
13.0637 11.0003 2.9593 100.0
13.0637 11.0003 3.1333 100.0
13.0637 11.0003 3.3074 100.0
13.0637 11.0003 3.4815 100.0
13.0637 11.0003 3.6556 100.0
13.0637 11.0003 3.8296 100.0
13.0637 11.0003 4.0037 100.0
13.0637 11.0003 4.1778 100.0
13.0637 11.0003 4.3519 100.0
13.0637 11.0003 4.5259 100.0
13.0637 11.0003 4.7000 100.0
13.0637 12.9997 0.0000 100.0
13.0637 12.9997 0.1741 100.0
13.0637 12.9997 0.3481 100.0
13.0637 12.9997 0.5222 100.0
13.0637 12.9997 0.6963 100.0
13.0637 12.9997 0.8704 100.0
13.0637 12.9997 1.0444 100.0
13.0637 12.9997 1.2185 100.0
13.0637 12.9997 1.3926 100.0
13.0637 12.9997 1.5667 100.0
13.0637 12.9997 1.7407 100.0
13.0637 12.9997 1.9148 100.0
13.0637 12.9997 2.0889 100.0
13.0637 12.9997 2.2630 100.0
13.0637 12.9997 2.4370 100.0
13.0637 12.9997 2.6111 100.0
13.0637 12.9997 2.7852 100.0
13.0637 12.9997 2.9593 100.0
13.0637 12.9997 3.1333 100.0
13.0637 12.9997 3.3074 100.0
13.0637 12.9997 3.4815 100.0
13.0637 12.9997 3.6556 100.0
13.0637 12.9997 3.8296 100.0
13.0637 12.9997 4.0037 100.0
13.0637 12.9997 4.1778 100.0
13.0637 12.9997 4.3519 100.0
13.0637 12.9997 4.5259 100.0
13.0637 12.9997 4.7000 100.0
13.1026 -8.0000 3.0900 100.0
13.1026 8.0000 3.0900 100.0
13.1026 -7.9200 3.1114 100.0
13.1026 7.9200 3.1114 100.0
13.1026 -7.8614 3.1700 100.0
13.1026 8.1386 3.1700 100.0
13.1026 -8.1600 3.2500 100.0
13.1026 7.8400 3.2500 100.0
13.1026 -6.8250 3.0500 100.0
13.1026 -6.6750 3.0000 100.0
13.1026 -6.5250 3.0000 100.0
13.1026 -6.3750 3.0000 100.0
13.1026 -6.2250 3.0000 100.0
13.1026 -6.0750 3.0500 100.0
13.1026 6.0750 3.0500 100.0
13.1026 6.2250 3.0000 100.0
13.1026 6.3750 3.0000 100.0
13.1026 6.5250 3.0000 100.0
13.1026 6.6750 3.0000 100.0
13.1026 6.8250 3.0500 100.0
13.1026 -8.1386 3.3300 100.0
13.1026 -7.8614 3.3300 100.0
13.1026 8.1386 3.3300 100.0
13.1026 7.9200 3.3885 100.0
13.1026 8.0800 3.3885 100.0
13.1026 -8.0000 3.4100 100.0
13.1029 11.9103 0.0000 100.0
13.1029 11.9103 4.7000 100.0
13.1029 12.0897 0.0000 100.0
13.1029 12.0897 4.7000 100.0
13.1172 -7.8000 1.2700 100.0
13.1172 7.8000 1.2700 100.0
13.1172 -7.8900 1.2941 100.0
13.1172 7.7100 1.2941 100.0
13.1172 -7.6441 1.3600 100.0
13.1172 7.9559 1.3600 100.0
13.1172 -7.9800 1.4500 100.0
13.1172 7.6200 1.4500 100.0
13.1172 -7.9559 1.5400 100.0
13.1172 -7.6441 1.5400 100.0
13.1172 7.6441 1.5400 100.0
13.1172 7.9559 1.5400 100.0
13.1172 -7.8900 1.6058 100.0
13.1172 -7.7100 1.6058 100.0
13.1172 7.7100 1.6058 100.0
13.1172 7.8900 1.6058 100.0
13.1219 -7.3500 2.3300 100.0
13.1219 7.3500 2.3300 100.0
13.1219 -7.4600 2.3594 100.0
13.1219 7.2400 2.3594 100.0
13.1219 -7.1595 2.4400 100.0
13.1219 7.5405 2.4400 100.0
13.1219 -7.5700 2.5500 100.0
13.1219 7.1300 2.5500 100.0
13.1219 -7.5405 2.6600 100.0
13.1219 -7.1595 2.6600 100.0
13.1219 7.1595 2.6600 100.0
13.1219 7.5405 2.6600 100.0
13.1219 -7.4600 2.7405 100.0
13.1219 -7.2400 2.7405 100.0
13.1219 7.2400 2.7405 100.0
13.1219 7.4600 2.7405 100.0
13.1258 11.7324 0.0000 100.0
13.1258 11.7324 4.7000 100.0
13.1258 12.2676 0.0000 100.0
13.1258 12.2676 4.7000 100.0
13.1286 11.2255 0.0000 100.0
13.1286 11.2255 4.7000 100.0
13.1286 12.7745 0.0000 100.0
13.1286 12.7745 4.7000 100.0
13.1713 11.5588 0.0000 100.0
13.1713 11.5588 4.7000 100.0
13.1713 12.4412 0.0000 100.0
13.1713 12.4412 4.7000 100.0
13.1722 10.8601 0.0000 100.0
13.1722 10.8601 0.1741 100.0
13.1722 10.8601 0.3481 100.0
13.1722 10.8601 0.5222 100.0
13.1722 10.8601 0.6963 100.0
13.1722 10.8601 0.8704 100.0
13.1722 10.8601 1.0444 100.0
13.1722 10.8601 1.2185 100.0
13.1722 10.8601 1.3926 100.0
13.1722 10.8601 1.5667 100.0
13.1722 10.8601 1.7407 100.0
13.1722 10.8601 1.9148 100.0
13.1722 10.8601 2.0889 100.0
13.1722 10.8601 2.2630 100.0
13.1722 10.8601 2.4370 100.0
13.1722 10.8601 2.6111 100.0
13.1722 10.8601 2.7852 100.0
13.1722 10.8601 2.9593 100.0
13.1722 10.8601 3.1333 100.0
13.1722 10.8601 3.3074 100.0
13.1722 10.8601 3.4815 100.0
13.1722 10.8601 3.6556 100.0
13.1722 10.8601 3.8296 100.0
13.1722 10.8601 4.0037 100.0
13.1722 10.8601 4.1778 100.0
13.1722 10.8601 4.3519 100.0
13.1722 10.8601 4.5259 100.0
13.1722 10.8601 4.7000 100.0
13.1722 13.1399 0.0000 100.0
13.1722 13.1399 0.1741 100.0
13.1722 13.1399 0.3481 100.0
13.1722 13.1399 0.5222 100.0
13.1722 13.1399 0.6963 100.0
13.1722 13.1399 0.8704 100.0
13.1722 13.1399 1.0444 100.0
13.1722 13.1399 1.2185 100.0
13.1722 13.1399 1.3926 100.0
13.1722 13.1399 1.5667 100.0
13.1722 13.1399 1.7407 100.0
13.1722 13.1399 1.9148 100.0
13.1722 13.1399 2.0889 100.0
13.1722 13.1399 2.2630 100.0
13.1722 13.1399 2.4370 100.0
13.1722 13.1399 2.6111 100.0
13.1722 13.1399 2.7852 100.0
13.1722 13.1399 2.9593 100.0
13.1722 13.1399 3.1333 100.0
13.1722 13.1399 3.3074 100.0
13.1722 13.1399 3.4815 100.0
13.1722 13.1399 3.6556 100.0
13.1722 13.1399 3.8296 100.0
13.1722 13.1399 4.0037 100.0
13.1722 13.1399 4.1778 100.0
13.1722 13.1399 4.3519 100.0
13.1722 13.1399 4.5259 100.0
13.1722 13.1399 4.7000 100.0
13.1839 -7.5500 3.9300 100.0
13.1839 7.5500 3.9300 100.0
13.1839 -7.4900 3.9460 100.0
13.1839 7.6539 3.9900 100.0
13.1839 -7.6700 4.0500 100.0
13.1839 7.4300 4.0500 100.0
13.1839 -7.6539 4.1100 100.0
13.1839 -7.4461 4.1100 100.0
13.1839 7.6539 4.1100 100.0
13.1839 7.4900 4.1539 100.0
13.1839 7.6100 4.1539 100.0
13.1839 -7.5500 4.1700 100.0
13.2000 -8.3500 1.8100 100.0
13.2000 8.3500 1.8100 100.0
13.2000 8.4200 1.8287 100.0
13.2000 -8.2288 1.8800 100.0
13.2000 -8.4900 1.9500 100.0
13.2000 8.2100 1.9500 100.0
13.2000 -8.2288 2.0200 100.0
13.2000 8.2288 2.0200 100.0
13.2000 8.4712 2.0200 100.0
13.2000 -8.4200 2.0712 100.0
13.2000 -8.2800 2.0712 100.0
13.2000 8.3500 2.0900 100.0
13.2258 11.0742 0.0000 100.0
13.2258 11.0742 4.7000 100.0
13.2258 12.9258 0.0000 100.0
13.2258 12.9258 4.7000 100.0
13.2386 11.3926 0.0000 100.0
13.2386 11.3926 4.7000 100.0
13.2386 12.6074 0.0000 100.0
13.2386 12.6074 4.7000 100.0
13.2783 11.9106 0.0000 100.0
13.2783 11.9106 4.7000 100.0
13.2783 12.0894 0.0000 100.0
13.2783 12.0894 4.7000 100.0
13.2821 -8.0000 3.0900 100.0
13.2821 8.0000 3.0900 100.0
13.2821 -7.9200 3.1114 100.0
13.2821 7.9200 3.1114 100.0
13.2821 -7.8614 3.1700 100.0
13.2821 8.1386 3.1700 100.0
13.2821 -8.1600 3.2500 100.0
13.2821 7.8400 3.2500 100.0
13.2821 -6.8250 3.0500 100.0
13.2821 -6.6750 3.0000 100.0
13.2821 -6.5250 3.0000 100.0
13.2821 -6.3750 3.0000 100.0
13.2821 -6.2250 3.0000 100.0
13.2821 -6.0750 3.0500 100.0
13.2821 6.0750 3.0500 100.0
13.2821 6.2250 3.0000 100.0
13.2821 6.3750 3.0000 100.0
13.2821 6.5250 3.0000 100.0
13.2821 6.6750 3.0000 100.0
13.2821 6.8250 3.0500 100.0
13.2821 -8.1386 3.3300 100.0
13.2821 -7.8614 3.3300 100.0
13.2821 8.1386 3.3300 100.0
13.2821 7.9200 3.3885 100.0
13.2821 8.0800 3.3885 100.0
13.2821 -8.0000 3.4100 100.0
13.2943 10.7316 0.0000 100.0
13.2943 10.7316 0.1741 100.0
13.2943 10.7316 0.3481 100.0
13.2943 10.7316 0.5222 100.0
13.2943 10.7316 0.6963 100.0
13.2943 10.7316 0.8704 100.0
13.2943 10.7316 1.0444 100.0
13.2943 10.7316 1.2185 100.0
13.2943 10.7316 1.3926 100.0
13.2943 10.7316 1.5667 100.0
13.2943 10.7316 1.7407 100.0
13.2943 10.7316 1.9148 100.0
13.2943 10.7316 2.0889 100.0
13.2943 10.7316 2.2630 100.0
13.2943 10.7316 2.4370 100.0
13.2943 10.7316 2.6111 100.0
13.2943 10.7316 2.7852 100.0
13.2943 10.7316 2.9593 100.0
13.2943 10.7316 3.1333 100.0
13.2943 10.7316 3.3074 100.0
13.2943 10.7316 3.4815 100.0
13.2943 10.7316 3.6556 100.0
13.2943 10.7316 3.8296 100.0
13.2943 10.7316 4.0037 100.0
13.2943 10.7316 4.1778 100.0
13.2943 10.7316 4.3519 100.0
13.2943 10.7316 4.5259 100.0
13.2943 10.7316 4.7000 100.0
13.2943 13.2684 0.0000 100.0
13.2943 13.2684 0.1741 100.0
13.2943 13.2684 0.3481 100.0
13.2943 13.2684 0.5222 100.0
13.2943 13.2684 0.6963 100.0
13.2943 13.2684 0.8704 100.0
13.2943 13.2684 1.0444 100.0
13.2943 13.2684 1.2185 100.0
13.2943 13.2684 1.3926 100.0
13.2943 13.2684 1.5667 100.0
13.2943 13.2684 1.7407 100.0
13.2943 13.2684 1.9148 100.0
13.2943 13.2684 2.0889 100.0
13.2943 13.2684 2.2630 100.0
13.2943 13.2684 2.4370 100.0
13.2943 13.2684 2.6111 100.0
13.2943 13.2684 2.7852 100.0
13.2943 13.2684 2.9593 100.0
13.2943 13.2684 3.1333 100.0
13.2943 13.2684 3.3074 100.0
13.2943 13.2684 3.4815 100.0
13.2943 13.2684 3.6556 100.0
13.2943 13.2684 3.8296 100.0
13.2943 13.2684 4.0037 100.0
13.2943 13.2684 4.1778 100.0
13.2943 13.2684 4.3519 100.0
13.2943 13.2684 4.5259 100.0
13.2943 13.2684 4.7000 100.0
13.2969 -7.8000 1.2700 100.0
13.2969 7.8000 1.2700 100.0
13.2969 -7.8900 1.2941 100.0
13.2969 7.7100 1.2941 100.0
13.2969 -7.6441 1.3600 100.0
13.2969 7.9559 1.3600 100.0
13.2969 -7.9800 1.4500 100.0
13.2969 7.6200 1.4500 100.0
13.2969 -7.9559 1.5400 100.0
13.2969 -7.6441 1.5400 100.0
13.2969 7.6441 1.5400 100.0
13.2969 7.9559 1.5400 100.0
13.2969 -7.8900 1.6058 100.0
13.2969 -7.7100 1.6058 100.0
13.2969 7.7100 1.6058 100.0
13.2969 7.8900 1.6058 100.0
13.3017 -7.3500 2.3300 100.0
13.3017 7.3500 2.3300 100.0
13.3017 -7.4600 2.3594 100.0
13.3017 7.2400 2.3594 100.0
13.3017 -7.1595 2.4400 100.0
13.3017 7.5405 2.4400 100.0
13.3017 -7.5700 2.5500 100.0
13.3017 7.1300 2.5500 100.0
13.3017 -7.5405 2.6600 100.0
13.3017 -7.1595 2.6600 100.0
13.3017 7.1595 2.6600 100.0
13.3017 7.5405 2.6600 100.0
13.3017 -7.4600 2.7405 100.0
13.3017 -7.2400 2.7405 100.0
13.3017 7.2400 2.7405 100.0
13.3017 7.4600 2.7405 100.0
13.3043 11.7336 0.0000 100.0
13.3043 11.7336 4.7000 100.0
13.3043 12.2664 0.0000 100.0
13.3043 12.2664 4.7000 100.0
13.3267 11.2363 0.0000 100.0
13.3267 11.2363 4.7000 100.0
13.3267 12.7637 0.0000 100.0
13.3267 12.7637 4.7000 100.0
13.3396 10.9350 0.0000 100.0
13.3396 10.9350 4.7000 100.0
13.3396 13.0650 0.0000 100.0
13.3396 13.0650 4.7000 100.0
13.3558 11.5624 0.0000 100.0
13.3558 11.5624 4.7000 100.0
13.3558 12.4376 0.0000 100.0
13.3558 12.4376 4.7000 100.0
13.3632 -7.5500 3.9300 100.0
13.3632 7.5500 3.9300 100.0
13.3632 -7.4900 3.9460 100.0
13.3632 7.6539 3.9900 100.0
13.3632 -7.6700 4.0500 100.0
13.3632 7.4300 4.0500 100.0
13.3632 -7.6539 4.1100 100.0
13.3632 -7.4461 4.1100 100.0
13.3632 7.6539 4.1100 100.0
13.3632 7.4900 4.1539 100.0
13.3632 7.6100 4.1539 100.0
13.3632 -7.5500 4.1700 100.0
13.3796 -8.3500 1.8100 100.0
13.3796 8.3500 1.8100 100.0
13.3796 8.4200 1.8287 100.0
13.3796 -8.2288 1.8800 100.0
13.3796 -8.4900 1.9500 100.0
13.3796 8.2100 1.9500 100.0
13.3796 -8.2288 2.0200 100.0
13.3796 8.2288 2.0200 100.0
13.3796 8.4712 2.0200 100.0
13.3796 -8.4200 2.0712 100.0
13.3796 -8.2800 2.0712 100.0
13.3796 8.3500 2.0900 100.0
13.4288 10.6161 0.0000 100.0
13.4288 10.6161 0.1741 100.0
13.4288 10.6161 0.3481 100.0
13.4288 10.6161 0.5222 100.0
13.4288 10.6161 0.6963 100.0
13.4288 10.6161 0.8704 100.0
13.4288 10.6161 1.0444 100.0
13.4288 10.6161 1.2185 100.0
13.4288 10.6161 1.3926 100.0
13.4288 10.6161 1.5667 100.0
13.4288 10.6161 1.7407 100.0
13.4288 10.6161 1.9148 100.0
13.4288 10.6161 2.0889 100.0
13.4288 10.6161 2.2630 100.0
13.4288 10.6161 2.4370 100.0
13.4288 10.6161 2.6111 100.0
13.4288 10.6161 2.7852 100.0
13.4288 10.6161 2.9593 100.0
13.4288 10.6161 3.1333 100.0
13.4288 10.6161 3.3074 100.0
13.4288 10.6161 3.4815 100.0
13.4288 10.6161 3.6556 100.0
13.4288 10.6161 3.8296 100.0
13.4288 10.6161 4.0037 100.0
13.4288 10.6161 4.1778 100.0
13.4288 10.6161 4.3519 100.0
13.4288 10.6161 4.5259 100.0
13.4288 10.6161 4.7000 100.0
13.4288 13.3839 0.0000 100.0
13.4288 13.3839 0.1741 100.0
13.4288 13.3839 0.3481 100.0
13.4288 13.3839 0.5222 100.0
13.4288 13.3839 0.6963 100.0
13.4288 13.3839 0.8704 100.0
13.4288 13.3839 1.0444 100.0
13.4288 13.3839 1.2185 100.0
13.4288 13.3839 1.3926 100.0
13.4288 13.3839 1.5667 100.0
13.4288 13.3839 1.7407 100.0
13.4288 13.3839 1.9148 100.0
13.4288 13.3839 2.0889 100.0
13.4288 13.3839 2.2630 100.0
13.4288 13.3839 2.4370 100.0
13.4288 13.3839 2.6111 100.0
13.4288 13.3839 2.7852 100.0
13.4288 13.3839 2.9593 100.0
13.4288 13.3839 3.1333 100.0
13.4288 13.3839 3.3074 100.0
13.4288 13.3839 3.4815 100.0
13.4288 13.3839 3.6556 100.0
13.4288 13.3839 3.8296 100.0
13.4288 13.3839 4.0037 100.0
13.4288 13.3839 4.1778 100.0
13.4288 13.3839 4.3519 100.0
13.4288 13.3839 4.5259 100.0
13.4288 13.3839 4.7000 100.0
13.4317 11.4005 0.0000 100.0
13.4317 11.4005 4.7000 100.0
13.4317 12.5995 0.0000 100.0
13.4317 12.5995 4.7000 100.0
13.4340 11.0925 0.0000 100.0
13.4340 11.0925 4.7000 100.0
13.4340 12.9075 0.0000 100.0
13.4340 12.9075 4.7000 100.0
13.4538 11.9110 0.0000 100.0
13.4538 11.9110 4.7000 100.0
13.4538 12.0890 0.0000 100.0
13.4538 12.0890 4.7000 100.0
13.4615 -8.0000 3.0900 100.0
13.4615 8.0000 3.0900 100.0
13.4615 -7.9200 3.1114 100.0
13.4615 7.9200 3.1114 100.0
13.4615 -7.8614 3.1700 100.0
13.4615 8.1386 3.1700 100.0
13.4615 -8.1600 3.2500 100.0
13.4615 7.8400 3.2500 100.0
13.4615 -6.8250 3.0500 100.0
13.4615 -6.6750 3.0000 100.0
13.4615 -6.5250 3.0000 100.0
13.4615 -6.3750 3.0000 100.0
13.4615 -6.2250 3.0000 100.0
13.4615 -6.0750 3.0500 100.0
13.4615 6.0750 3.0500 100.0
13.4615 6.2250 3.0000 100.0
13.4615 6.3750 3.0000 100.0
13.4615 6.5250 3.0000 100.0
13.4615 6.6750 3.0000 100.0
13.4615 6.8250 3.0500 100.0
13.4615 -8.1386 3.3300 100.0
13.4615 -7.8614 3.3300 100.0
13.4615 8.1386 3.3300 100.0
13.4615 7.9200 3.3885 100.0
13.4615 8.0800 3.3885 100.0
13.4615 -8.0000 3.4100 100.0
13.4686 10.8097 0.0000 100.0
13.4686 10.8097 4.7000 100.0
13.4686 13.1903 0.0000 100.0
13.4686 13.1903 4.7000 100.0
13.4766 -7.8000 1.2700 100.0
13.4766 7.8000 1.2700 100.0
13.4766 -7.8900 1.2941 100.0
13.4766 7.7100 1.2941 100.0
13.4766 -7.6441 1.3600 100.0
13.4766 7.9559 1.3600 100.0
13.4766 -7.9800 1.4500 100.0
13.4766 7.6200 1.4500 100.0
13.4766 -7.9559 1.5400 100.0
13.4766 -7.6441 1.5400 100.0
13.4766 7.6441 1.5400 100.0
13.4766 7.9559 1.5400 100.0
13.4766 -7.8900 1.6058 100.0
13.4766 -7.7100 1.6058 100.0
13.4766 7.7100 1.6058 100.0
13.4766 7.8900 1.6058 100.0
13.4814 -7.3500 2.3300 100.0
13.4814 7.3500 2.3300 100.0
13.4814 -7.4600 2.3594 100.0
13.4814 7.2400 2.3594 100.0
13.4814 -7.1595 2.4400 100.0
13.4814 7.5405 2.4400 100.0
13.4814 -7.5700 2.5500 100.0
13.4814 7.1300 2.5500 100.0
13.4814 -7.5405 2.6600 100.0
13.4814 -7.1595 2.6600 100.0
13.4814 7.1595 2.6600 100.0
13.4814 7.5405 2.6600 100.0
13.4814 -7.4600 2.7405 100.0
13.4814 -7.2400 2.7405 100.0
13.4814 7.2400 2.7405 100.0
13.4814 7.4600 2.7405 100.0
13.4839 11.7354 0.0000 100.0
13.4839 11.7354 4.7000 100.0
13.4839 12.2646 0.0000 100.0
13.4839 12.2646 4.7000 100.0
13.5304 11.2513 0.0000 100.0
13.5304 11.2513 4.7000 100.0
13.5304 12.7487 0.0000 100.0
13.5304 12.7487 4.7000 100.0
13.5426 -7.5500 3.9300 100.0
13.5426 7.5500 3.9300 100.0
13.5426 -7.4900 3.9460 100.0
13.5426 7.6539 3.9900 100.0
13.5426 -7.6700 4.0500 100.0
13.5426 7.4300 4.0500 100.0
13.5426 -7.6539 4.1100 100.0
13.5426 -7.4461 4.1100 100.0
13.5426 7.6539 4.1100 100.0
13.5426 7.4900 4.1539 100.0
13.5426 7.6100 4.1539 100.0
13.5426 -7.5500 4.1700 100.0
13.5432 11.5675 0.0000 100.0
13.5432 11.5675 4.7000 100.0
13.5432 12.4325 0.0000 100.0
13.5432 12.4325 4.7000 100.0
13.5588 10.9636 0.0000 100.0
13.5588 10.9636 4.7000 100.0
13.5588 13.0364 0.0000 100.0
13.5588 13.0364 4.7000 100.0
13.5592 -8.3500 1.8100 100.0
13.5592 8.3500 1.8100 100.0
13.5592 8.4200 1.8287 100.0
13.5592 -8.2288 1.8800 100.0
13.5592 -8.4900 1.9500 100.0
13.5592 8.2100 1.9500 100.0
13.5592 -8.2288 2.0200 100.0
13.5592 8.2288 2.0200 100.0
13.5592 8.4712 2.0200 100.0
13.5592 -8.4200 2.0712 100.0
13.5592 -8.2800 2.0712 100.0
13.5592 8.3500 2.0900 100.0
13.5743 10.5149 0.0000 100.0
13.5743 10.5149 0.1741 100.0
13.5743 10.5149 0.3481 100.0
13.5743 10.5149 0.5222 100.0
13.5743 10.5149 0.6963 100.0
